# .PCD v0.7 - Point Cloud Data file format
VERSION 0.7
FIELDS x y z
SIZE 4 4 4
TYPE F F F
COUNT 1 1 1
WIDTH 1560
HEIGHT 1
VIEWPOINT 0 0 0 1 0 0 0
POINTS 1560
DATA ascii
-1.0199003 2.9734221 1.7236249
-1.0199003 2.9734221 1.7734375
-1.0199003 2.9734221 1.8232499
-1.0199003 2.9734221 1.8730625
-1.0199003 2.9734221 1.9228749
-1.0199003 2.9734221 1.9726875
-1.0199003 2.9734221 2.0225
-1.0199003 2.9734221 2.0723124
-1.0199003 2.9734221 2.1221249
-1.0199003 2.9734221 2.1719375
-1.0199003 2.9734221 2.22175
-1.0199003 2.9734221 2.2715623
-1.0199003 2.9734221 2.3213749
-1.0199003 2.9734221 2.3711874
-1.0199003 2.9734221 2.421
-1.0199003 2.9734221 2.4708126
-1.0199003 2.9734221 2.5206249
-1.0199003 2.9734221 2.5704374
-1.0199003 2.9734221 2.62025
-1.0199003 2.9734221 2.6700625
-1.0199003 2.9734221 2.7198749
-1.0199003 2.9734221 2.7696874
-1.0199003 2.9734221 2.8195
-1.0199003 2.9734221 2.8693125
-1.0199003 2.9734221 2.9191248
-1.0199003 2.9734221 2.9689374
-1.0199003 2.9734221 3.01875
-1.0199003 2.9235883 0.029999999
-1.0199003 2.9235883 0.079812497
-1.0199003 2.9235883 0.12962499
-1.0199003 2.9235883 0.1794375
-1.0199003 2.9235883 0.22925
-1.0199003 2.9235883 0.27906248
-1.0199003 2.9235883 0.32887501
-1.0199003 2.9235883 0.3786875
-1.0199003 2.9235883 0.4285
-1.0199003 2.9235883 0.47831249
-1.0199003 2.9235883 0.52812499
-1.0199003 2.9235883 0.57793748
-1.0199003 2.9235883 0.62774998
-1.0199003 2.9235883 0.67756248
-1.0199003 2.9235883 0.72737497
-1.0199003 2.9235883 0.77718747
-1.0199003 2.9235883 0.82699996
-1.0199003 2.9235883 0.87681246
-1.0199003 2.9235883 0.92662495
-1.0199003 2.9235883 0.97643745
-1.0199003 2.9235883 1.02625
-1.0199003 2.9235883 1.0760624
-1.0199003 2.9235883 1.125875
-1.0199003 2.9235883 1.1756874
-1.0199003 2.9235883 1.2255
-1.0199003 2.9235883 1.2753124
-1.0199003 2.9235883 1.325125
-1.0199003 2.9235883 1.3749374
-1.0199003 2.9235883 1.42475
-1.0199003 2.9235883 1.4745624
-1.0199003 2.9235883 1.524375
-1.0199003 2.9235883 1.5741874
-1.0199003 2.9235883 1.624
-1.0199003 2.9235883 1.6738125
-1.0199003 2.9235883 1.7236249
-1.0199003 2.9235883 1.7734375
-1.0199003 2.9235883 1.8232499
-1.0199003 2.9235883 1.8730625
-1.0199003 2.9235883 1.9228749
-1.0199003 2.9235883 1.9726875
-1.0199003 2.9235883 2.0225
-1.0199003 2.9235883 2.0723124
-1.0199003 2.9235883 2.1221249
-1.0199003 2.9235883 2.1719375
-1.0199003 2.9235883 2.22175
-1.0199003 2.9235883 2.2715623
-1.0199003 2.9235883 2.3213749
-1.0199003 2.9235883 2.3711874
-1.0199003 2.9235883 2.421
-1.0199003 2.9235883 2.4708126
-1.0199003 2.9235883 2.5206249
-1.0199003 2.9235883 2.5704374
-1.0199003 2.9235883 2.62025
-1.0199003 2.9235883 2.6700625
-1.0199003 2.9235883 2.7198749
-1.0199003 2.9235883 2.7696874
-1.0199003 2.9235883 2.8195
-1.0199003 2.9235883 2.8693125
-1.0199003 2.9235883 2.9191248
-1.0199003 2.9235883 2.9689374
-1.0199003 2.9235883 3.01875
-1.0199003 2.873754 0.029999999
-1.0199003 2.873754 0.079812497
-1.0199003 2.873754 0.12962499
-1.0199003 2.873754 0.1794375
-1.0199003 2.873754 0.22925
-1.0199003 2.873754 0.27906248
-1.0199003 2.873754 0.32887501
-1.0199003 2.873754 0.3786875
-1.0199003 2.873754 0.4285
-1.0199003 2.873754 0.47831249
-1.0199003 2.873754 0.52812499
-1.0199003 2.873754 0.57793748
-1.0199003 2.873754 0.62774998
-1.0199003 2.873754 0.67756248
-1.0199003 2.873754 0.72737497
-1.0199003 2.873754 0.77718747
-1.0199003 2.873754 0.82699996
-1.0199003 2.873754 0.87681246
-1.0199003 2.873754 0.92662495
-1.0199003 2.873754 0.97643745
-1.0199003 2.873754 1.02625
-1.0199003 2.873754 1.0760624
-1.0199003 2.873754 1.125875
-1.0199003 2.873754 1.1756874
-1.0199003 2.873754 1.2255
-1.0199003 2.873754 1.2753124
-1.0199003 2.873754 1.325125
-1.0199003 2.873754 1.3749374
-1.0199003 2.873754 1.42475
-1.0199003 2.873754 1.4745624
-1.0199003 2.873754 1.524375
-1.0199003 2.873754 1.5741874
-1.0199003 2.873754 1.624
-1.0199003 2.873754 1.6738125
-1.0199003 2.873754 1.7236249
-1.0199003 2.873754 1.7734375
-1.0199003 2.873754 1.8232499
-1.0199003 2.873754 1.8730625
-1.0199003 2.873754 1.9228749
-1.0199003 2.873754 1.9726875
-1.0199003 2.873754 2.0225
-1.0199003 2.873754 2.0723124
-1.0199003 2.873754 2.1221249
-1.0199003 2.873754 2.1719375
-1.0199003 2.873754 2.22175
-1.0199003 2.873754 2.2715623
-1.0199003 2.873754 2.3213749
-1.0199003 2.873754 2.3711874
-1.0199003 2.873754 2.421
-1.0199003 2.873754 2.4708126
-1.0199003 2.873754 2.5206249
-1.0199003 2.873754 2.5704374
-1.0199003 2.873754 2.62025
-1.0199003 2.873754 2.6700625
-1.0199003 2.873754 2.7198749
-1.0199003 2.873754 2.7696874
-1.0199003 2.873754 2.8195
-1.0199003 2.873754 2.8693125
-1.0199003 2.873754 2.9191248
-1.0199003 2.873754 2.9689374
-1.0199003 2.873754 3.01875
-1.0199003 2.8239202 0.029999999
-1.0199003 2.8239202 0.079812497
-1.0199003 2.8239202 0.12962499
-1.0199003 2.8239202 0.1794375
-1.0199003 2.8239202 0.22925
-1.0199003 2.8239202 0.27906248
-1.0199003 2.8239202 0.32887501
-1.0199003 2.8239202 0.3786875
-1.0199003 2.8239202 0.4285
-1.0199003 2.8239202 0.47831249
-1.0199003 2.8239202 0.52812499
-1.0199003 2.8239202 0.57793748
-1.0199003 2.8239202 0.62774998
-1.0199003 2.8239202 0.67756248
-1.0199003 2.8239202 0.72737497
-1.0199003 2.8239202 0.77718747
-1.0199003 2.8239202 0.82699996
-1.0199003 2.8239202 0.87681246
-1.0199003 2.8239202 0.92662495
-1.0199003 2.8239202 0.97643745
-1.0199003 2.8239202 1.02625
-1.0199003 2.8239202 1.0760624
-1.0199003 2.8239202 1.125875
-1.0199003 2.8239202 1.1756874
-1.0199003 2.8239202 1.2255
-1.0199003 2.8239202 1.2753124
-1.0199003 2.8239202 1.325125
-1.0199003 2.8239202 1.3749374
-1.0199003 2.8239202 1.42475
-1.0199003 2.8239202 1.4745624
-1.0199003 2.8239202 1.524375
-1.0199003 2.8239202 1.5741874
-1.0199003 2.8239202 1.624
-1.0199003 2.8239202 1.6738125
-1.0199003 2.8239202 1.7236249
-1.0199003 2.8239202 1.7734375
-1.0199003 2.8239202 1.8232499
-1.0199003 2.8239202 1.8730625
-1.0199003 2.8239202 1.9228749
-1.0199003 2.8239202 1.9726875
-1.0199003 2.8239202 2.0225
-1.0199003 2.8239202 2.0723124
-1.0199003 2.8239202 2.1221249
-1.0199003 2.8239202 2.1719375
-1.0199003 2.8239202 2.22175
-1.0199003 2.8239202 2.2715623
-1.0199003 2.8239202 2.3213749
-1.0199003 2.8239202 2.3711874
-1.0199003 2.8239202 2.421
-1.0199003 2.8239202 2.4708126
-1.0199003 2.8239202 2.5206249
-1.0199003 2.8239202 2.5704374
-1.0199003 2.8239202 2.62025
-1.0199003 2.8239202 2.6700625
-1.0199003 2.8239202 2.7198749
-1.0199003 2.8239202 2.7696874
-1.0199003 2.8239202 2.8195
-1.0199003 2.8239202 2.8693125
-1.0199003 2.8239202 2.9191248
-1.0199003 2.8239202 2.9689374
-1.0199003 2.8239202 3.01875
-1.0199003 2.7740865 0.029999999
-1.0199003 2.7740865 0.079812497
-1.0199003 2.7740865 0.12962499
-1.0199003 2.7740865 0.1794375
-1.0199003 2.7740865 0.22925
-1.0199003 2.7740865 0.27906248
-1.0199003 2.7740865 0.32887501
-1.0199003 2.7740865 0.3786875
-1.0199003 2.7740865 0.4285
-1.0199003 2.7740865 0.47831249
-1.0199003 2.7740865 0.52812499
-1.0199003 2.7740865 0.57793748
-1.0199003 2.7740865 0.62774998
-1.0199003 2.7740865 0.67756248
-1.0199003 2.7740865 0.72737497
-1.0199003 2.7740865 0.77718747
-1.0199003 2.7740865 0.82699996
-1.0199003 2.7740865 0.87681246
-1.0199003 2.7740865 0.92662495
-1.0199003 2.7740865 0.97643745
-1.0199003 2.7740865 1.02625
-1.0199003 2.7740865 1.0760624
-1.0199003 2.7740865 1.125875
-1.0199003 2.7740865 1.1756874
-1.0199003 2.7740865 1.2255
-1.0199003 2.7740865 1.2753124
-1.0199003 2.7740865 1.325125
-1.0199003 2.7740865 1.3749374
-1.0199003 2.7740865 1.42475
-1.0199003 2.7740865 1.4745624
-1.0199003 2.7740865 1.524375
-1.0199003 2.7740865 1.5741874
-1.0199003 2.7740865 1.624
-1.0199003 2.7740865 1.6738125
-1.0199003 2.7740865 1.7236249
-1.0199003 2.7740865 1.7734375
-1.0199003 2.7740865 1.8232499
-1.0199003 2.7740865 1.8730625
-1.0199003 2.7740865 1.9228749
-1.0199003 2.7740865 1.9726875
-1.0199003 2.7740865 2.0225
-1.0199003 2.7740865 2.0723124
-1.0199003 2.7740865 2.1221249
-1.0199003 2.7740865 2.1719375
-1.0199003 2.7740865 2.22175
-1.0199003 2.7740865 2.2715623
-1.0199003 2.7740865 2.3213749
-1.0199003 2.7740865 2.3711874
-1.0199003 2.7740865 2.421
-1.0199003 2.7740865 2.4708126
-1.0199003 2.7740865 2.5206249
-1.0199003 2.7740865 2.5704374
-1.0199003 2.7740865 2.62025
-1.0199003 2.7740865 2.6700625
-1.0199003 2.7740865 2.7198749
-1.0199003 2.7740865 2.7696874
-1.0199003 2.7740865 2.8195
-1.0199003 2.7740865 2.8693125
-1.0199003 2.7740865 2.9191248
-1.0199003 2.7740865 2.9689374
-1.0199003 2.7740865 3.01875
-1.0199003 2.7242527 0.029999999
-1.0199003 2.7242527 0.079812497
-1.0199003 2.7242527 0.12962499
-1.0199003 2.7242527 0.1794375
-1.0199003 2.7242527 0.22925
-1.0199003 2.7242527 0.27906248
-1.0199003 2.7242527 0.32887501
-1.0199003 2.7242527 0.3786875
-1.0199003 2.7242527 0.4285
-1.0199003 2.7242527 0.47831249
-1.0199003 2.7242527 0.52812499
-1.0199003 2.7242527 0.57793748
-1.0199003 2.7242527 0.62774998
-1.0199003 2.7242527 0.67756248
-1.0199003 2.7242527 0.72737497
-1.0199003 2.7242527 0.77718747
-1.0199003 2.7242527 0.82699996
-1.0199003 2.7242527 0.87681246
-1.0199003 2.7242527 0.92662495
-1.0199003 2.7242527 0.97643745
-1.0199003 2.7242527 1.02625
-1.0199003 2.7242527 1.0760624
-1.0199003 2.7242527 1.125875
-1.0199003 2.7242527 1.1756874
-1.0199003 2.7242527 1.2255
-1.0199003 2.7242527 1.2753124
-1.0199003 2.7242527 1.325125
-1.0199003 2.7242527 1.3749374
-1.0199003 2.7242527 1.42475
-1.0199003 2.7242527 1.4745624
-1.0199003 2.7242527 1.524375
-1.0199003 2.7242527 1.5741874
-1.0199003 2.7242527 1.624
-1.0199003 2.7242527 1.6738125
-1.0199003 2.7242527 1.7236249
-1.0199003 2.7242527 1.7734375
-1.0199003 2.7242527 1.8232499
-1.0199003 2.7242527 1.8730625
-1.0199003 2.7242527 1.9228749
-1.0199003 2.7242527 1.9726875
-1.0199003 2.7242527 2.0225
-1.0199003 2.7242527 2.0723124
-1.0199003 2.7242527 2.1221249
-1.0199003 2.7242527 2.1719375
-1.0199003 2.7242527 2.22175
-1.0199003 2.7242527 2.2715623
-1.0199003 2.7242527 2.3213749
-1.0199003 2.7242527 2.3711874
-1.0199003 2.7242527 2.421
-1.0199003 2.7242527 2.4708126
-1.0199003 2.7242527 2.5206249
-1.0199003 2.7242527 2.5704374
-1.0199003 2.7242527 2.62025
-1.0199003 2.7242527 2.6700625
-1.0199003 2.7242527 2.7198749
-1.0199003 2.7242527 2.7696874
-1.0199003 2.7242527 2.8195
-1.0199003 2.7242527 2.8693125
-1.0199003 2.7242527 2.9191248
-1.0199003 2.7242527 2.9689374
-1.0199003 2.7242527 3.01875
-1.0199003 2.6744189 0.029999999
-1.0199003 2.6744189 0.079812497
-1.0199003 2.6744189 0.12962499
-1.0199003 2.6744189 0.1794375
-1.0199003 2.6744189 0.22925
-1.0199003 2.6744189 0.27906248
-1.0199003 2.6744189 0.32887501
-1.0199003 2.6744189 0.3786875
-1.0199003 2.6744189 0.4285
-1.0199003 2.6744189 0.47831249
-1.0199003 2.6744189 0.52812499
-1.0199003 2.6744189 0.57793748
-1.0199003 2.6744189 0.62774998
-1.0199003 2.6744189 0.67756248
-1.0199003 2.6744189 0.72737497
-1.0199003 2.6744189 0.77718747
-1.0199003 2.6744189 0.82699996
-1.0199003 2.6744189 0.87681246
-1.0199003 2.6744189 0.92662495
-1.0199003 2.6744189 0.97643745
-1.0199003 2.6744189 1.02625
-1.0199003 2.6744189 1.0760624
-1.0199003 2.6744189 1.125875
-1.0199003 2.6744189 1.1756874
-1.0199003 2.6744189 1.2255
-1.0199003 2.6744189 1.2753124
-1.0199003 2.6744189 1.325125
-1.0199003 2.6744189 1.3749374
-1.0199003 2.6744189 1.42475
-1.0199003 2.6744189 1.4745624
-1.0199003 2.6744189 1.524375
-1.0199003 2.6744189 1.5741874
-1.0199003 2.6744189 1.624
-1.0199003 2.6744189 1.6738125
-1.0199003 2.6744189 1.7236249
-1.0199003 2.6744189 1.7734375
-1.0199003 2.6744189 1.8232499
-1.0199003 2.6744189 1.8730625
-1.0199003 2.6744189 1.9228749
-1.0199003 2.6744189 1.9726875
-1.0199003 2.6744189 2.0225
-1.0199003 2.6744189 2.0723124
-1.0199003 2.6744189 2.1221249
-1.0199003 2.6744189 2.1719375
-1.0199003 2.6744189 2.22175
-1.0199003 2.6744189 2.2715623
-1.0199003 2.6744189 2.3213749
-1.0199003 2.6744189 2.3711874
-1.0199003 2.6744189 2.421
-1.0199003 2.6744189 2.4708126
-1.0199003 2.6744189 2.5206249
-1.0199003 2.6744189 2.5704374
-1.0199003 2.6744189 2.62025
-1.0199003 2.6744189 2.6700625
-1.0199003 2.6744189 2.7198749
-1.0199003 2.6744189 2.7696874
-1.0199003 2.6744189 2.8195
-1.0199003 2.6744189 2.8693125
-1.0199003 2.6744189 2.9191248
-1.0199003 2.6744189 2.9689374
-1.0199003 2.6744189 3.01875
-1.0199003 2.6245847 0.029999999
-1.0199003 2.6245847 0.079812497
-1.0199003 2.6245847 0.12962499
-1.0199003 2.6245847 0.1794375
-1.0199003 2.6245847 0.22925
-1.0199003 2.6245847 0.27906248
-1.0199003 2.6245847 0.32887501
-1.0199003 2.6245847 0.3786875
-1.0199003 2.6245847 0.4285
-1.0199003 2.6245847 0.47831249
-1.0199003 2.6245847 0.52812499
-1.0199003 2.6245847 0.57793748
-1.0199003 2.6245847 0.62774998
-1.0199003 2.6245847 0.67756248
-1.0199003 2.6245847 0.72737497
-1.0199003 2.6245847 0.77718747
-1.0199003 2.6245847 0.82699996
-1.0199003 2.6245847 0.87681246
-1.0199003 2.6245847 0.92662495
-1.0199003 2.6245847 0.97643745
-1.0199003 2.6245847 1.02625
-1.0199003 2.6245847 1.0760624
-1.0199003 2.6245847 1.125875
-1.0199003 2.6245847 1.1756874
-1.0199003 2.6245847 1.2255
-1.0199003 2.6245847 1.2753124
-1.0199003 2.6245847 1.325125
-1.0199003 2.6245847 1.3749374
-1.0199003 2.6245847 1.42475
-1.0199003 2.6245847 1.4745624
-1.0199003 2.6245847 1.524375
-1.0199003 2.6245847 1.5741874
-1.0199003 2.6245847 1.624
-1.0199003 2.6245847 1.6738125
-1.0199003 2.6245847 1.7236249
-1.0199003 2.6245847 1.7734375
-1.0199003 2.6245847 1.8232499
-1.0199003 2.6245847 1.8730625
-1.0199003 2.6245847 1.9228749
-1.0199003 2.6245847 1.9726875
-1.0199003 2.6245847 2.0225
-1.0199003 2.6245847 2.0723124
-1.0199003 2.6245847 2.1221249
-1.0199003 2.6245847 2.1719375
-1.0199003 2.6245847 2.22175
-1.0199003 2.6245847 2.2715623
-1.0199003 2.6245847 2.3213749
-1.0199003 2.6245847 2.3711874
-1.0199003 2.6245847 2.421
-1.0199003 2.6245847 2.4708126
-1.0199003 2.6245847 2.5206249
-1.0199003 2.6245847 2.5704374
-1.0199003 2.6245847 2.62025
-1.0199003 2.6245847 2.6700625
-1.0199003 2.6245847 2.7198749
-1.0199003 2.6245847 2.7696874
-1.0199003 2.6245847 2.8195
-1.0199003 2.6245847 2.8693125
-1.0199003 2.6245847 2.9191248
-1.0199003 2.6245847 2.9689374
-1.0199003 2.6245847 3.01875
-1.0199003 2.5747509 0.029999999
-1.0199003 2.5747509 0.079812497
-1.0199003 2.5747509 0.12962499
-1.0199003 2.5747509 0.1794375
-1.0199003 2.5747509 0.22925
-1.0199003 2.5747509 0.27906248
-1.0199003 2.5747509 0.32887501
-1.0199003 2.5747509 0.3786875
-1.0199003 2.5747509 0.4285
-1.0199003 2.5747509 0.47831249
-1.0199003 2.5747509 0.52812499
-1.0199003 2.5747509 0.57793748
-1.0199003 2.5747509 0.62774998
-1.0199003 2.5747509 0.67756248
-1.0199003 2.5747509 0.72737497
-1.0199003 2.5747509 0.77718747
-1.0199003 2.5747509 0.82699996
-1.0199003 2.5747509 0.87681246
-1.0199003 2.5747509 0.92662495
-1.0199003 2.5747509 0.97643745
-1.0199003 2.5747509 1.02625
-1.0199003 2.5747509 1.0760624
-1.0199003 2.5747509 1.125875
-1.0199003 2.5747509 1.1756874
-1.0199003 2.5747509 1.2255
-1.0199003 2.5747509 1.2753124
-1.0199003 2.5747509 1.325125
-1.0199003 2.5747509 1.3749374
-1.0199003 2.5747509 1.42475
-1.0199003 2.5747509 1.4745624
-1.0199003 2.5747509 1.524375
-1.0199003 2.5747509 1.5741874
-1.0199003 2.5747509 1.624
-1.0199003 2.5747509 1.6738125
-1.0199003 2.5747509 1.7236249
-1.0199003 2.5747509 1.7734375
-1.0199003 2.5747509 1.8232499
-1.0199003 2.5747509 1.8730625
-1.0199003 2.5747509 1.9228749
-1.0199003 2.5747509 1.9726875
-1.0199003 2.5747509 2.0225
-1.0199003 2.5747509 2.0723124
-1.0199003 2.5747509 2.1221249
-1.0199003 2.5747509 2.1719375
-1.0199003 2.5747509 2.22175
-1.0199003 2.5747509 2.2715623
-1.0199003 2.5747509 2.3213749
-1.0199003 2.5747509 2.3711874
-1.0199003 2.5747509 2.421
-1.0199003 2.5747509 2.4708126
-1.0199003 2.5747509 2.5206249
-1.0199003 2.5747509 2.5704374
-1.0199003 2.5747509 2.62025
-1.0199003 2.5747509 2.6700625
-1.0199003 2.5747509 2.7198749
-1.0199003 2.5747509 2.7696874
-1.0199003 2.5747509 2.8195
-1.0199003 2.5747509 2.8693125
-1.0199003 2.5747509 2.9191248
-1.0199003 2.5747509 2.9689374
-1.0199003 2.5747509 3.01875
-1.0199003 2.5249171 0.029999999
-1.0199003 2.5249171 0.079812497
-1.0199003 2.5249171 0.12962499
-1.0199003 2.5249171 0.1794375
-1.0199003 2.5249171 0.22925
-1.0199003 2.5249171 0.27906248
-1.0199003 2.5249171 0.32887501
-1.0199003 2.5249171 0.3786875
-1.0199003 2.5249171 0.4285
-1.0199003 2.5249171 0.47831249
-1.0199003 2.5249171 0.52812499
-1.0199003 2.5249171 0.57793748
-1.0199003 2.5249171 0.62774998
-1.0199003 2.5249171 0.67756248
-1.0199003 2.5249171 0.72737497
-1.0199003 2.5249171 0.77718747
-1.0199003 2.5249171 0.82699996
-1.0199003 2.5249171 0.87681246
-1.0199003 2.5249171 0.92662495
-1.0199003 2.5249171 0.97643745
-1.0199003 2.5249171 1.02625
-1.0199003 2.5249171 1.0760624
-1.0199003 2.5249171 1.125875
-1.0199003 2.5249171 1.1756874
-1.0199003 2.5249171 1.2255
-1.0199003 2.5249171 1.2753124
-1.0199003 2.5249171 1.325125
-1.0199003 2.5249171 1.3749374
-1.0199003 2.5249171 1.42475
-1.0199003 2.5249171 1.4745624
-1.0199003 2.5249171 1.524375
-1.0199003 2.5249171 1.5741874
-1.0199003 2.5249171 1.624
-1.0199003 2.5249171 1.6738125
-1.0199003 2.5249171 1.7236249
-1.0199003 2.5249171 1.7734375
-1.0199003 2.5249171 1.8232499
-1.0199003 2.5249171 1.8730625
-1.0199003 2.5249171 1.9228749
-1.0199003 2.5249171 1.9726875
-1.0199003 2.5249171 2.0225
-1.0199003 2.5249171 2.0723124
-1.0199003 2.5249171 2.1221249
-1.0199003 2.5249171 2.1719375
-1.0199003 2.5249171 2.22175
-1.0199003 2.5249171 2.2715623
-1.0199003 2.5249171 2.3213749
-1.0199003 2.5249171 2.3711874
-1.0199003 2.5249171 2.421
-1.0199003 2.5249171 2.4708126
-1.0199003 2.5249171 2.5206249
-1.0199003 2.5249171 2.5704374
-1.0199003 2.5249171 2.62025
-1.0199003 2.5249171 2.6700625
-1.0199003 2.5249171 2.7198749
-1.0199003 2.5249171 2.7696874
-1.0199003 2.5249171 2.8195
-1.0199003 2.5249171 2.8693125
-1.0199003 2.5249171 2.9191248
-1.0199003 2.5249171 2.9689374
-1.0199003 2.5249171 3.01875
-1.0199003 2.4750834 0.029999999
-1.0199003 2.4750834 0.079812497
-1.0199003 2.4750834 0.12962499
-1.0199003 2.4750834 0.1794375
-1.0199003 2.4750834 0.22925
-1.0199003 2.4750834 0.27906248
-1.0199003 2.4750834 0.32887501
-1.0199003 2.4750834 0.3786875
-1.0199003 2.4750834 0.4285
-1.0199003 2.4750834 0.47831249
-1.0199003 2.4750834 0.52812499
-1.0199003 2.4750834 0.57793748
-1.0199003 2.4750834 0.62774998
-1.0199003 2.4750834 0.67756248
-1.0199003 2.4750834 0.72737497
-1.0199003 2.4750834 0.77718747
-1.0199003 2.4750834 0.82699996
-1.0199003 2.4750834 0.87681246
-1.0199003 2.4750834 0.92662495
-1.0199003 2.4750834 0.97643745
-1.0199003 2.4750834 1.02625
-1.0199003 2.4750834 1.0760624
-1.0199003 2.4750834 1.125875
-1.0199003 2.4750834 1.1756874
-1.0199003 2.4750834 1.2255
-1.0199003 2.4750834 1.2753124
-1.0199003 2.4750834 1.325125
-1.0199003 2.4750834 1.3749374
-1.0199003 2.4750834 1.42475
-1.0199003 2.4750834 1.4745624
-1.0199003 2.4750834 1.524375
-1.0199003 2.4750834 1.5741874
-1.0199003 2.4750834 1.624
-1.0199003 2.4750834 1.6738125
-1.0199003 2.4750834 1.7236249
-1.0199003 2.4750834 1.7734375
-1.0199003 2.4750834 1.8232499
-1.0199003 2.4750834 1.8730625
-1.0199003 2.4750834 1.9228749
-1.0199003 2.4750834 1.9726875
-1.0199003 2.4750834 2.0225
-1.0199003 2.4750834 2.0723124
-1.0199003 2.4750834 2.1221249
-1.0199003 2.4750834 2.1719375
-1.0199003 2.4750834 2.22175
-1.0199003 2.4750834 2.2715623
-1.0199003 2.4750834 2.3213749
-1.0199003 2.4750834 2.3711874
-1.0199003 2.4750834 2.421
-1.0199003 2.4750834 2.4708126
-1.0199003 2.4750834 2.5206249
-1.0199003 2.4750834 2.5704374
-1.0199003 2.4750834 2.62025
-1.0199003 2.4750834 2.6700625
-1.0199003 2.4750834 2.7198749
-1.0199003 2.4750834 2.7696874
-1.0199003 2.4750834 2.8195
-1.0199003 2.4750834 2.8693125
-1.0199003 2.4750834 2.9191248
-1.0199003 2.4750834 2.9689374
-1.0199003 2.4750834 3.01875
-1.0199003 2.4252491 0.029999999
-1.0199003 2.4252491 0.079812497
-1.0199003 2.4252491 0.12962499
-1.0199003 2.4252491 0.1794375
-1.0199003 2.4252491 0.22925
-1.0199003 2.4252491 0.27906248
-1.0199003 2.4252491 0.32887501
-1.0199003 2.4252491 0.3786875
-1.0199003 2.4252491 0.4285
-1.0199003 2.4252491 0.47831249
-1.0199003 2.4252491 0.52812499
-1.0199003 2.4252491 0.57793748
-1.0199003 2.4252491 0.62774998
-1.0199003 2.4252491 0.67756248
-1.0199003 2.4252491 0.72737497
-1.0199003 2.4252491 0.77718747
-1.0199003 2.4252491 0.82699996
-1.0199003 2.4252491 0.87681246
-1.0199003 2.4252491 0.92662495
-1.0199003 2.4252491 0.97643745
-1.0199003 2.4252491 1.02625
-1.0199003 2.4252491 1.0760624
-1.0199003 2.4252491 1.125875
-1.0199003 2.4252491 1.1756874
-1.0199003 2.4252491 1.2255
-1.0199003 2.4252491 1.2753124
-1.0199003 2.4252491 1.325125
-1.0199003 2.4252491 1.3749374
-1.0199003 2.4252491 1.42475
-1.0199003 2.4252491 1.4745624
-1.0199003 2.4252491 1.524375
-1.0199003 2.4252491 1.5741874
-1.0199003 2.4252491 1.624
-1.0199003 2.4252491 1.6738125
-1.0199003 2.4252491 1.7236249
-1.0199003 2.4252491 1.7734375
-1.0199003 2.4252491 1.8232499
-1.0199003 2.4252491 1.8730625
-1.0199003 2.4252491 1.9228749
-1.0199003 2.4252491 1.9726875
-1.0199003 2.4252491 2.0225
-1.0199003 2.4252491 2.0723124
-1.0199003 2.4252491 2.1221249
-1.0199003 2.4252491 2.1719375
-1.0199003 2.4252491 2.22175
-1.0199003 2.4252491 2.2715623
-1.0199003 2.4252491 2.3213749
-1.0199003 2.4252491 2.3711874
-1.0199003 2.4252491 2.421
-1.0199003 2.4252491 2.4708126
-1.0199003 2.4252491 2.5206249
-1.0199003 2.4252491 2.5704374
-1.0199003 2.4252491 2.62025
-1.0199003 2.4252491 2.6700625
-1.0199003 2.4252491 2.7198749
-1.0199003 2.4252491 2.7696874
-1.0199003 2.4252491 2.8195
-1.0199003 2.4252491 2.8693125
-1.0199003 2.4252491 2.9191248
-1.0199003 2.4252491 2.9689374
-1.0199003 2.4252491 3.01875
-1.0199003 2.3754153 0.029999999
-1.0199003 2.3754153 0.079812497
-1.0199003 2.3754153 0.12962499
-1.0199003 2.3754153 0.1794375
-1.0199003 2.3754153 0.22925
-1.0199003 2.3754153 0.27906248
-1.0199003 2.3754153 0.32887501
-1.0199003 2.3754153 0.3786875
-1.0199003 2.3754153 0.4285
-1.0199003 2.3754153 0.47831249
-1.0199003 2.3754153 0.52812499
-1.0199003 2.3754153 0.57793748
-1.0199003 2.3754153 0.62774998
-1.0199003 2.3754153 0.67756248
-1.0199003 2.3754153 0.72737497
-1.0199003 2.3754153 0.77718747
-1.0199003 2.3754153 0.82699996
-1.0199003 2.3754153 0.87681246
-1.0199003 2.3754153 0.92662495
-1.0199003 2.3754153 0.97643745
-1.0199003 2.3754153 1.02625
-1.0199003 2.3754153 1.0760624
-1.0199003 2.3754153 1.125875
-1.0199003 2.3754153 1.1756874
-1.0199003 2.3754153 1.2255
-1.0199003 2.3754153 1.2753124
-1.0199003 2.3754153 1.325125
-1.0199003 2.3754153 1.3749374
-1.0199003 2.3754153 1.42475
-1.0199003 2.3754153 1.4745624
-1.0199003 2.3754153 1.524375
-1.0199003 2.3754153 1.5741874
-1.0199003 2.3754153 1.624
-1.0199003 2.3754153 1.6738125
-1.0199003 2.3754153 1.7236249
-1.0199003 2.3754153 1.7734375
-1.0199003 2.3754153 1.8232499
-1.0199003 2.3754153 1.8730625
-1.0199003 2.3754153 1.9228749
-1.0199003 2.3754153 1.9726875
-1.0199003 2.3754153 2.0225
-1.0199003 2.3754153 2.0723124
-1.0199003 2.3754153 2.1221249
-1.0199003 2.3754153 2.1719375
-1.0199003 2.3754153 2.22175
-1.0199003 2.3754153 2.2715623
-1.0199003 2.3754153 2.3213749
-1.0199003 2.3754153 2.3711874
-1.0199003 2.3754153 2.421
-1.0199003 2.3754153 2.4708126
-1.0199003 2.3754153 2.5206249
-1.0199003 2.3754153 2.5704374
-1.0199003 2.3754153 2.62025
-1.0199003 2.3754153 2.6700625
-1.0199003 2.3754153 2.7198749
-1.0199003 2.3754153 2.7696874
-1.0199003 2.3754153 2.8195
-1.0199003 2.3754153 2.8693125
-1.0199003 2.3754153 2.9191248
-1.0199003 2.3754153 2.9689374
-1.0199003 2.3754153 3.01875
-1.0199003 2.3255816 0.029999999
-1.0199003 2.3255816 0.079812497
-1.0199003 2.3255816 0.12962499
-1.0199003 2.3255816 0.1794375
-1.0199003 2.3255816 0.22925
-1.0199003 2.3255816 0.27906248
-1.0199003 2.3255816 0.32887501
-1.0199003 2.3255816 0.3786875
-1.0199003 2.3255816 0.4285
-1.0199003 2.3255816 0.47831249
-1.0199003 2.3255816 0.52812499
-1.0199003 2.3255816 0.57793748
-1.0199003 2.3255816 0.62774998
-1.0199003 2.3255816 0.67756248
-1.0199003 2.3255816 0.72737497
-1.0199003 2.3255816 0.77718747
-1.0199003 2.3255816 0.82699996
-1.0199003 2.3255816 0.87681246
-1.0199003 2.3255816 0.92662495
-1.0199003 2.3255816 0.97643745
-1.0199003 2.3255816 1.02625
-1.0199003 2.3255816 1.0760624
-1.0199003 2.3255816 1.125875
-1.0199003 2.3255816 1.1756874
-1.0199003 2.3255816 1.2255
-1.0199003 2.3255816 1.2753124
-1.0199003 2.3255816 1.325125
-1.0199003 2.3255816 1.3749374
-1.0199003 2.3255816 1.42475
-1.0199003 2.3255816 1.4745624
-1.0199003 2.3255816 1.524375
-1.0199003 2.3255816 1.5741874
-1.0199003 2.3255816 1.624
-1.0199003 2.3255816 1.6738125
-1.0199003 2.3255816 1.7236249
-1.0199003 2.3255816 1.7734375
-1.0199003 2.3255816 1.8232499
-1.0199003 2.3255816 1.8730625
-1.0199003 2.3255816 1.9228749
-1.0199003 2.3255816 1.9726875
-1.0199003 2.3255816 2.0225
-1.0199003 2.3255816 2.0723124
-1.0199003 2.3255816 2.1221249
-1.0199003 2.3255816 2.1719375
-1.0199003 2.3255816 2.22175
-1.0199003 2.3255816 2.2715623
-1.0199003 2.3255816 2.3213749
-1.0199003 2.3255816 2.3711874
-1.0199003 2.3255816 2.421
-1.0199003 2.3255816 2.4708126
-1.0199003 2.3255816 2.5206249
-1.0199003 2.3255816 2.5704374
-1.0199003 2.3255816 2.62025
-1.0199003 2.3255816 2.6700625
-1.0199003 2.3255816 2.7198749
-1.0199003 2.3255816 2.7696874
-1.0199003 2.3255816 2.8195
-1.0199003 2.3255816 2.8693125
-1.0199003 2.3255816 2.9191248
-1.0199003 2.3255816 2.9689374
-1.0199003 2.3255816 3.01875
-1.0199003 2.2757478 0.029999999
-1.0199003 2.2757478 0.079812497
-1.0199003 2.2757478 0.12962499
-1.0199003 2.2757478 0.1794375
-1.0199003 2.2757478 0.22925
-1.0199003 2.2757478 0.27906248
-1.0199003 2.2757478 0.32887501
-1.0199003 2.2757478 0.3786875
-1.0199003 2.2757478 0.4285
-1.0199003 2.2757478 0.47831249
-1.0199003 2.2757478 0.52812499
-1.0199003 2.2757478 0.57793748
-1.0199003 2.2757478 0.62774998
-1.0199003 2.2757478 0.67756248
-1.0199003 2.2757478 0.72737497
-1.0199003 2.2757478 0.77718747
-1.0199003 2.2757478 0.82699996
-1.0199003 2.2757478 0.87681246
-1.0199003 2.2757478 0.92662495
-1.0199003 2.2757478 0.97643745
-1.0199003 2.2757478 1.02625
-1.0199003 2.2757478 1.0760624
-1.0199003 2.2757478 1.125875
-1.0199003 2.2757478 1.1756874
-1.0199003 2.2757478 1.2255
-1.0199003 2.2757478 1.2753124
-1.0199003 2.2757478 1.325125
-1.0199003 2.2757478 1.3749374
-1.0199003 2.2757478 1.42475
-1.0199003 2.2757478 1.4745624
-1.0199003 2.2757478 1.524375
-1.0199003 2.2757478 1.5741874
-1.0199003 2.2757478 1.624
-1.0199003 2.2757478 1.6738125
-1.0199003 2.2757478 1.7236249
-1.0199003 2.2757478 1.7734375
-1.0199003 2.2757478 1.8232499
-1.0199003 2.2757478 1.8730625
-1.0199003 2.2757478 1.9228749
-1.0199003 2.2757478 1.9726875
-1.0199003 2.2757478 2.0225
-1.0199003 2.2757478 2.0723124
-1.0199003 2.2757478 2.1221249
-1.0199003 2.2757478 2.1719375
-1.0199003 2.2757478 2.22175
-1.0199003 2.2757478 2.2715623
-1.0199003 2.2757478 2.3213749
-1.0199003 2.2757478 2.3711874
-1.0199003 2.2757478 2.421
-1.0199003 2.2757478 2.4708126
-1.0199003 2.2757478 2.5206249
-1.0199003 2.2757478 2.5704374
-1.0199003 2.2757478 2.62025
-1.0199003 2.2757478 2.6700625
-1.0199003 2.2757478 2.7198749
-1.0199003 2.2757478 2.7696874
-1.0199003 2.2757478 2.8195
-1.0199003 2.2757478 2.8693125
-1.0199003 2.2757478 2.9191248
-1.0199003 2.2757478 2.9689374
-1.0199003 2.2757478 3.01875
-1.0199003 2.2259135 0.029999999
-1.0199003 2.2259135 0.079812497
-1.0199003 2.2259135 0.12962499
-1.0199003 2.2259135 0.1794375
-1.0199003 2.2259135 0.22925
-1.0199003 2.2259135 0.27906248
-1.0199003 2.2259135 0.32887501
-1.0199003 2.2259135 0.3786875
-1.0199003 2.2259135 0.4285
-1.0199003 2.2259135 0.47831249
-1.0199003 2.2259135 0.52812499
-1.0199003 2.2259135 0.57793748
-1.0199003 2.2259135 0.62774998
-1.0199003 2.2259135 0.67756248
-1.0199003 2.2259135 0.72737497
-1.0199003 2.2259135 0.77718747
-1.0199003 2.2259135 0.82699996
-1.0199003 2.2259135 0.87681246
-1.0199003 2.2259135 0.92662495
-1.0199003 2.2259135 0.97643745
-1.0199003 2.2259135 1.02625
-1.0199003 2.2259135 1.0760624
-1.0199003 2.2259135 1.125875
-1.0199003 2.2259135 1.1756874
-1.0199003 2.2259135 1.2255
-1.0199003 2.2259135 1.2753124
-1.0199003 2.2259135 1.325125
-1.0199003 2.2259135 1.3749374
-1.0199003 2.2259135 1.42475
-1.0199003 2.2259135 1.4745624
-1.0199003 2.2259135 1.524375
-1.0199003 2.2259135 1.5741874
-1.0199003 2.2259135 1.624
-1.0199003 2.2259135 1.6738125
-1.0199003 2.2259135 1.7236249
-1.0199003 2.2259135 1.7734375
-1.0199003 2.2259135 1.8232499
-1.0199003 2.2259135 1.8730625
-1.0199003 2.2259135 1.9228749
-1.0199003 2.2259135 1.9726875
-1.0199003 2.2259135 2.0225
-1.0199003 2.2259135 2.0723124
-1.0199003 2.2259135 2.1221249
-1.0199003 2.2259135 2.1719375
-1.0199003 2.2259135 2.22175
-1.0199003 2.2259135 2.2715623
-1.0199003 2.2259135 2.3213749
-1.0199003 2.2259135 2.3711874
-1.0199003 2.2259135 2.421
-1.0199003 2.2259135 2.4708126
-1.0199003 2.2259135 2.5206249
-1.0199003 2.2259135 2.5704374
-1.0199003 2.2259135 2.62025
-1.0199003 2.2259135 2.6700625
-1.0199003 2.2259135 2.7198749
-1.0199003 2.2259135 2.7696874
-1.0199003 2.2259135 2.8195
-1.0199003 2.2259135 2.8693125
-1.0199003 2.2259135 2.9191248
-1.0199003 2.2259135 2.9689374
-1.0199003 2.2259135 3.01875
-1.0199003 2.1760798 0.029999999
-1.0199003 2.1760798 0.079812497
-1.0199003 2.1760798 0.12962499
-1.0199003 2.1760798 0.1794375
-1.0199003 2.1760798 0.22925
-1.0199003 2.1760798 0.27906248
-1.0199003 2.1760798 0.32887501
-1.0199003 2.1760798 0.3786875
-1.0199003 2.1760798 0.4285
-1.0199003 2.1760798 0.47831249
-1.0199003 2.1760798 0.52812499
-1.0199003 2.1760798 0.57793748
-1.0199003 2.1760798 0.62774998
-1.0199003 2.1760798 0.67756248
-1.0199003 2.1760798 0.72737497
-1.0199003 2.1760798 0.77718747
-1.0199003 2.1760798 0.82699996
-1.0199003 2.1760798 0.87681246
-1.0199003 2.1760798 0.92662495
-1.0199003 2.1760798 0.97643745
-1.0199003 2.1760798 1.02625
-1.0199003 2.1760798 1.0760624
-1.0199003 2.1760798 1.125875
-1.0199003 2.1760798 1.1756874
-1.0199003 2.1760798 1.2255
-1.0199003 2.1760798 1.2753124
-1.0199003 2.1760798 1.325125
-1.0199003 2.1760798 1.3749374
-1.0199003 2.1760798 1.42475
-1.0199003 2.1760798 1.4745624
-1.0199003 2.1760798 1.524375
-1.0199003 2.1760798 1.5741874
-1.0199003 2.1760798 1.624
-1.0199003 2.1760798 1.6738125
-1.0199003 2.1760798 1.7236249
-1.0199003 2.1760798 1.7734375
-1.0199003 2.1760798 1.8232499
-1.0199003 2.1760798 1.8730625
-1.0199003 2.1760798 1.9228749
-1.0199003 2.1760798 1.9726875
-1.0199003 2.1760798 2.0225
-1.0199003 2.1760798 2.0723124
-1.0199003 2.1760798 2.1221249
-1.0199003 2.1760798 2.1719375
-1.0199003 2.1760798 2.22175
-1.0199003 2.1760798 2.2715623
-1.0199003 2.1760798 2.3213749
-1.0199003 2.1760798 2.3711874
-1.0199003 2.1760798 2.421
-1.0199003 2.1760798 2.4708126
-1.0199003 2.1760798 2.5206249
-1.0199003 2.1760798 2.5704374
-1.0199003 2.1760798 2.62025
-1.0199003 2.1760798 2.6700625
-1.0199003 2.1760798 2.7198749
-1.0199003 2.1760798 2.7696874
-1.0199003 2.1760798 2.8195
-1.0199003 2.1760798 2.8693125
-1.0199003 2.1760798 2.9191248
-1.0199003 2.1760798 2.9689374
-1.0199003 2.1760798 3.01875
-1.0199003 2.126246 0.029999999
-1.0199003 2.126246 0.079812497
-1.0199003 2.126246 0.12962499
-1.0199003 2.126246 0.1794375
-1.0199003 2.126246 0.22925
-1.0199003 2.126246 0.27906248
-1.0199003 2.126246 0.32887501
-1.0199003 2.126246 0.3786875
-1.0199003 2.126246 0.4285
-1.0199003 2.126246 0.47831249
-1.0199003 2.126246 0.52812499
-1.0199003 2.126246 0.57793748
-1.0199003 2.126246 0.62774998
-1.0199003 2.126246 0.67756248
-1.0199003 2.126246 0.72737497
-1.0199003 2.126246 0.77718747
-1.0199003 2.126246 0.82699996
-1.0199003 2.126246 0.87681246
-1.0199003 2.126246 0.92662495
-1.0199003 2.126246 0.97643745
-1.0199003 2.126246 1.02625
-1.0199003 2.126246 1.0760624
-1.0199003 2.126246 1.125875
-1.0199003 2.126246 1.1756874
-1.0199003 2.126246 1.2255
-1.0199003 2.126246 1.2753124
-1.0199003 2.126246 1.325125
-1.0199003 2.126246 1.3749374
-1.0199003 2.126246 1.42475
-1.0199003 2.126246 1.4745624
-1.0199003 2.126246 1.524375
-1.0199003 2.126246 1.5741874
-1.0199003 2.126246 1.624
-1.0199003 2.126246 1.6738125
-1.0199003 2.126246 1.7236249
-1.0199003 2.126246 1.7734375
-1.0199003 2.126246 1.8232499
-1.0199003 2.126246 1.8730625
-1.0199003 2.126246 1.9228749
-1.0199003 2.126246 1.9726875
-1.0199003 2.126246 2.0225
-1.0199003 2.126246 2.0723124
-1.0199003 2.126246 2.1221249
-1.0199003 2.126246 2.1719375
-1.0199003 2.126246 2.22175
-1.0199003 2.126246 2.2715623
-1.0199003 2.126246 2.3213749
-1.0199003 2.126246 2.3711874
-1.0199003 2.126246 2.421
-1.0199003 2.126246 2.4708126
-1.0199003 2.126246 2.5206249
-1.0199003 2.126246 2.5704374
-1.0199003 2.126246 2.62025
-1.0199003 2.126246 2.6700625
-1.0199003 2.126246 2.7198749
-1.0199003 2.126246 2.7696874
-1.0199003 2.126246 2.8195
-1.0199003 2.126246 2.8693125
-1.0199003 2.126246 2.9191248
-1.0199003 2.126246 2.9689374
-1.0199003 2.126246 3.01875
-1.0199003 2.0764122 0.029999999
-1.0199003 2.0764122 0.079812497
-1.0199003 2.0764122 0.12962499
-1.0199003 2.0764122 0.1794375
-1.0199003 2.0764122 0.22925
-1.0199003 2.0764122 0.27906248
-1.0199003 2.0764122 0.32887501
-1.0199003 2.0764122 0.3786875
-1.0199003 2.0764122 0.4285
-1.0199003 2.0764122 0.47831249
-1.0199003 2.0764122 0.52812499
-1.0199003 2.0764122 0.57793748
-1.0199003 2.0764122 0.62774998
-1.0199003 2.0764122 0.67756248
-1.0199003 2.0764122 0.72737497
-1.0199003 2.0764122 0.77718747
-1.0199003 2.0764122 0.82699996
-1.0199003 2.0764122 0.87681246
-1.0199003 2.0764122 0.92662495
-1.0199003 2.0764122 0.97643745
-1.0199003 2.0764122 1.02625
-1.0199003 2.0764122 1.0760624
-1.0199003 2.0764122 1.125875
-1.0199003 2.0764122 1.1756874
-1.0199003 2.0764122 1.2255
-1.0199003 2.0764122 1.2753124
-1.0199003 2.0764122 1.325125
-1.0199003 2.0764122 1.3749374
-1.0199003 2.0764122 1.42475
-1.0199003 2.0764122 1.4745624
-1.0199003 2.0764122 1.524375
-1.0199003 2.0764122 1.5741874
-1.0199003 2.0764122 1.624
-1.0199003 2.0764122 1.6738125
-1.0199003 2.0764122 1.7236249
-1.0199003 2.0764122 1.7734375
-1.0199003 2.0764122 1.8232499
-1.0199003 2.0764122 1.8730625
-1.0199003 2.0764122 1.9228749
-1.0199003 2.0764122 1.9726875
-1.0199003 2.0764122 2.0225
-1.0199003 2.0764122 2.0723124
-1.0199003 2.0764122 2.1221249
-1.0199003 2.0764122 2.1719375
-1.0199003 2.0764122 2.22175
-1.0199003 2.0764122 2.2715623
-1.0199003 2.0764122 2.3213749
-1.0199003 2.0764122 2.3711874
-1.0199003 2.0764122 2.421
-1.0199003 2.0764122 2.4708126
-1.0199003 2.0764122 2.5206249
-1.0199003 2.0764122 2.5704374
-1.0199003 2.0764122 2.62025
-1.0199003 2.0764122 2.6700625
-1.0199003 2.0764122 2.7198749
-1.0199003 2.0764122 2.7696874
-1.0199003 2.0764122 2.8195
-1.0199003 2.0764122 2.8693125
-1.0199003 2.0764122 2.9191248
-1.0199003 2.0764122 2.9689374
-1.0199003 2.0764122 3.01875
-1.0199003 2.0265779 0.029999999
-1.0199003 2.0265779 0.079812497
-1.0199003 2.0265779 0.12962499
-1.0199003 2.0265779 0.1794375
-1.0199003 2.0265779 0.22925
-1.0199003 2.0265779 0.27906248
-1.0199003 2.0265779 0.32887501
-1.0199003 2.0265779 0.3786875
-1.0199003 2.0265779 0.4285
-1.0199003 2.0265779 0.47831249
-1.0199003 2.0265779 0.52812499
-1.0199003 2.0265779 0.57793748
-1.0199003 2.0265779 0.62774998
-1.0199003 2.0265779 0.67756248
-1.0199003 2.0265779 0.72737497
-1.0199003 2.0265779 0.77718747
-1.0199003 2.0265779 0.82699996
-1.0199003 2.0265779 0.87681246
-1.0199003 2.0265779 0.92662495
-1.0199003 2.0265779 0.97643745
-1.0199003 2.0265779 1.02625
-1.0199003 2.0265779 1.0760624
-1.0199003 2.0265779 1.125875
-1.0199003 2.0265779 1.1756874
-1.0199003 2.0265779 1.2255
-1.0199003 2.0265779 1.2753124
-1.0199003 2.0265779 1.325125
-1.0199003 2.0265779 1.3749374
-1.0199003 2.0265779 1.42475
-1.0199003 2.0265779 1.4745624
-1.0199003 2.0265779 1.524375
-1.0199003 2.0265779 1.5741874
-1.0199003 2.0265779 1.624
-1.0199003 2.0265779 1.6738125
-1.0199003 2.0265779 1.7236249
-1.0199003 2.0265779 1.7734375
-1.0199003 2.0265779 1.8232499
-1.0199003 2.0265779 1.8730625
-1.0199003 2.0265779 1.9228749
-1.0199003 2.0265779 1.9726875
-1.0199003 2.0265779 2.0225
-1.0199003 2.0265779 2.0723124
-1.0199003 2.0265779 2.1221249
-1.0199003 2.0265779 2.1719375
-1.0199003 2.0265779 2.22175
-1.0199003 2.0265779 2.2715623
-1.0199003 2.0265779 2.3213749
-1.0199003 2.0265779 2.3711874
-1.0199003 2.0265779 2.421
-1.0199003 2.0265779 2.4708126
-1.0199003 2.0265779 2.5206249
-1.0199003 2.0265779 2.5704374
-1.0199003 2.0265779 2.62025
-1.0199003 2.0265779 2.6700625
-1.0199003 2.0265779 2.7198749
-1.0199003 2.0265779 2.7696874
-1.0199003 2.0265779 2.8195
-1.0199003 2.0265779 2.8693125
-1.0199003 2.0265779 2.9191248
-1.0199003 2.0265779 2.9689374
-1.0199003 2.0265779 3.01875
-1.0199003 1.9767447 0.029999999
-1.0199003 1.9767447 0.079812497
-1.0199003 1.9767447 0.12962499
-1.0199003 1.9767447 0.1794375
-1.0199003 1.9767447 0.22925
-1.0199003 1.9767447 0.27906248
-1.0199003 1.9767447 0.32887501
-1.0199003 1.9767447 0.3786875
-1.0199003 1.9767447 0.4285
-1.0199003 1.9767447 0.47831249
-1.0199003 1.9767447 0.52812499
-1.0199003 1.9767447 0.57793748
-1.0199003 1.9767447 0.62774998
-1.0199003 1.9767447 0.67756248
-1.0199003 1.9767447 0.72737497
-1.0199003 1.9767447 0.77718747
-1.0199003 1.9767447 0.82699996
-1.0199003 1.9767447 0.87681246
-1.0199003 1.9767447 0.92662495
-1.0199003 1.9767447 0.97643745
-1.0199003 1.9767447 1.02625
-1.0199003 1.9767447 1.0760624
-1.0199003 1.9767447 1.125875
-1.0199003 1.9767447 1.1756874
-1.0199003 1.9767447 1.2255
-1.0199003 1.9767447 1.2753124
-1.0199003 1.9767447 1.325125
-1.0199003 1.9767447 1.3749374
-1.0199003 1.9767447 1.42475
-1.0199003 1.9767447 1.4745624
-1.0199003 1.9767447 1.524375
-1.0199003 1.9767447 1.5741874
-1.0199003 1.9767447 1.624
-1.0199003 1.9767447 1.6738125
-1.0199003 1.9767447 1.7236249
-1.0199003 1.9767447 1.7734375
-1.0199003 1.9767447 1.8232499
-1.0199003 1.9767447 1.8730625
-1.0199003 1.9767447 1.9228749
-1.0199003 1.9767447 1.9726875
-1.0199003 1.9767447 2.0225
-1.0199003 1.9767447 2.0723124
-1.0199003 1.9767447 2.1221249
-1.0199003 1.9767447 2.1719375
-1.0199003 1.9767447 2.22175
-1.0199003 1.9767447 2.2715623
-1.0199003 1.9767447 2.3213749
-1.0199003 1.9767447 2.3711874
-1.0199003 1.9767447 2.421
-1.0199003 1.9767447 2.4708126
-1.0199003 1.9767447 2.5206249
-1.0199003 1.9767447 2.5704374
-1.0199003 1.9767447 2.62025
-1.0199003 1.9767447 2.6700625
-1.0199003 1.9767447 2.7198749
-1.0199003 1.9767447 2.7696874
-1.0199003 1.9767447 2.8195
-1.0199003 1.9767447 2.8693125
-1.0199003 1.9767447 2.9191248
-1.0199003 1.9767447 2.9689374
-1.0199003 1.9767447 3.01875
-1.0199003 1.9269104 0.029999999
-1.0199003 1.9269104 0.079812497
-1.0199003 1.9269104 0.12962499
-1.0199003 1.9269104 0.1794375
-1.0199003 1.9269104 0.22925
-1.0199003 1.9269104 0.27906248
-1.0199003 1.9269104 0.32887501
-1.0199003 1.9269104 0.3786875
-1.0199003 1.9269104 0.4285
-1.0199003 1.9269104 0.47831249
-1.0199003 1.9269104 0.52812499
-1.0199003 1.9269104 0.57793748
-1.0199003 1.9269104 0.62774998
-1.0199003 1.9269104 0.67756248
-1.0199003 1.9269104 0.72737497
-1.0199003 1.9269104 0.77718747
-1.0199003 1.9269104 0.82699996
-1.0199003 1.9269104 0.87681246
-1.0199003 1.9269104 0.92662495
-1.0199003 1.9269104 0.97643745
-1.0199003 1.9269104 1.02625
-1.0199003 1.9269104 1.0760624
-1.0199003 1.9269104 1.125875
-1.0199003 1.9269104 1.1756874
-1.0199003 1.9269104 1.2255
-1.0199003 1.9269104 1.2753124
-1.0199003 1.9269104 1.325125
-1.0199003 1.9269104 1.3749374
-1.0199003 1.9269104 1.42475
-1.0199003 1.9269104 1.4745624
-1.0199003 1.9269104 1.524375
-1.0199003 1.9269104 1.5741874
-1.0199003 1.9269104 1.624
-1.0199003 1.9269104 1.6738125
-1.0199003 1.9269104 1.7236249
-1.0199003 1.9269104 1.7734375
-1.0199003 1.9269104 1.8232499
-1.0199003 1.9269104 1.8730625
-1.0199003 1.9269104 1.9228749
-1.0199003 1.9269104 1.9726875
-1.0199003 1.9269104 2.0225
-1.0199003 1.9269104 2.0723124
-1.0199003 1.9269104 2.1221249
-1.0199003 1.9269104 2.1719375
-1.0199003 1.9269104 2.22175
-1.0199003 1.9269104 2.2715623
-1.0199003 1.9269104 2.3213749
-1.0199003 1.9269104 2.3711874
-1.0199003 1.9269104 2.421
-1.0199003 1.9269104 2.4708126
-1.0199003 1.9269104 2.5206249
-1.0199003 1.9269104 2.5704374
-1.0199003 1.9269104 2.62025
-1.0199003 1.9269104 2.6700625
-1.0199003 1.9269104 2.7198749
-1.0199003 1.9269104 2.7696874
-1.0199003 1.9269104 2.8195
-1.0199003 1.9269104 2.8693125
-1.0199003 1.9269104 2.9191248
-1.0199003 1.9269104 2.9689374
-1.0199003 1.9269104 3.01875
-1.0199003 1.8770761 0.029999999
-1.0199003 1.8770761 0.079812497
-1.0199003 1.8770761 0.12962499
-1.0199003 1.8770761 0.1794375
-1.0199003 1.8770761 0.22925
-1.0199003 1.8770761 0.27906248
-1.0199003 1.8770761 0.32887501
-1.0199003 1.8770761 0.3786875
-1.0199003 1.8770761 0.4285
-1.0199003 1.8770761 0.47831249
-1.0199003 1.8770761 0.52812499
-1.0199003 1.8770761 0.57793748
-1.0199003 1.8770761 0.62774998
-1.0199003 1.8770761 0.67756248
-1.0199003 1.8770761 0.72737497
-1.0199003 1.8770761 0.77718747
-1.0199003 1.8770761 0.82699996
-1.0199003 1.8770761 0.87681246
-1.0199003 1.8770761 0.92662495
-1.0199003 1.8770761 0.97643745
-1.0199003 1.8770761 1.02625
-1.0199003 1.8770761 1.0760624
-1.0199003 1.8770761 1.125875
-1.0199003 1.8770761 1.1756874
-1.0199003 1.8770761 1.2255
-1.0199003 1.8770761 1.2753124
-1.0199003 1.8770761 1.325125
-1.0199003 1.8770761 1.3749374
-1.0199003 1.8770761 1.42475
-1.0199003 1.8770761 1.4745624
-1.0199003 1.8770761 1.524375
-1.0199003 1.8770761 1.5741874
-1.0199003 1.8770761 1.624
-1.0199003 1.8770761 1.6738125
-1.0199003 1.8770761 1.7236249
-1.0199003 1.8770761 1.7734375
-1.0199003 1.8770761 1.8232499
-1.0199003 1.8770761 1.8730625
-1.0199003 1.8770761 1.9228749
-1.0199003 1.8770761 1.9726875
-1.0199003 1.8770761 2.0225
-1.0199003 1.8770761 2.0723124
-1.0199003 1.8770761 2.1221249
-1.0199003 1.8770761 2.1719375
-1.0199003 1.8770761 2.22175
-1.0199003 1.8770761 2.2715623
-1.0199003 1.8770761 2.3213749
-1.0199003 1.8770761 2.3711874
-1.0199003 1.8770761 2.421
-1.0199003 1.8770761 2.4708126
-1.0199003 1.8770761 2.5206249
-1.0199003 1.8770761 2.5704374
-1.0199003 1.8770761 2.62025
-1.0199003 1.8770761 2.6700625
-1.0199003 1.8770761 2.7198749
-1.0199003 1.8770761 2.7696874
-1.0199003 1.8770761 2.8195
-1.0199003 1.8770761 2.8693125
-1.0199003 1.8770761 2.9191248
-1.0199003 1.8770761 2.9689374
-1.0199003 1.8770761 3.01875
-1.0199003 1.8272429 0.029999999
-1.0199003 1.8272429 0.079812497
-1.0199003 1.8272429 0.12962499
-1.0199003 1.8272429 0.1794375
-1.0199003 1.8272429 0.22925
-1.0199003 1.8272429 0.27906248
-1.0199003 1.8272429 0.32887501
-1.0199003 1.8272429 0.3786875
-1.0199003 1.8272429 0.4285
-1.0199003 1.8272429 0.47831249
-1.0199003 1.8272429 0.52812499
-1.0199003 1.8272429 0.57793748
-1.0199003 1.8272429 0.62774998
-1.0199003 1.8272429 0.67756248
-1.0199003 1.8272429 0.72737497
-1.0199003 1.8272429 0.77718747
-1.0199003 1.8272429 0.82699996
-1.0199003 1.8272429 0.87681246
-1.0199003 1.8272429 0.92662495
-1.0199003 1.8272429 0.97643745
-1.0199003 1.8272429 1.02625
-1.0199003 1.8272429 1.0760624
-1.0199003 1.8272429 1.125875
-1.0199003 1.8272429 1.1756874
-1.0199003 1.8272429 1.2255
-1.0199003 1.8272429 1.2753124
-1.0199003 1.8272429 1.325125
-1.0199003 1.8272429 1.3749374
-1.0199003 1.8272429 1.42475
-1.0199003 1.8272429 1.4745624
-1.0199003 1.8272429 1.524375
-1.0199003 1.8272429 1.5741874
-1.0199003 1.8272429 1.624
-1.0199003 1.8272429 1.6738125
-1.0199003 1.8272429 1.7236249
-1.0199003 1.8272429 1.7734375
-1.0199003 1.8272429 1.8232499
-1.0199003 1.8272429 1.8730625
-1.0199003 1.8272429 1.9228749
-1.0199003 1.8272429 1.9726875
-1.0199003 1.8272429 2.0225
-1.0199003 1.8272429 2.0723124
-1.0199003 1.8272429 2.1221249
-1.0199003 1.8272429 2.1719375
-1.0199003 1.8272429 2.22175
-1.0199003 1.8272429 2.2715623
-1.0199003 1.8272429 2.3213749
-1.0199003 1.8272429 2.3711874
-1.0199003 1.8272429 2.421
-1.0199003 1.8272429 2.4708126
-1.0199003 1.8272429 2.5206249
-1.0199003 1.8272429 2.5704374
-1.0199003 1.8272429 2.62025
-1.0199003 1.8272429 2.6700625
-1.0199003 1.8272429 2.7198749
-1.0199003 1.8272429 2.7696874
-1.0199003 1.8272429 2.8195
-1.0199003 1.8272429 2.8693125
-1.0199003 1.8272429 2.9191248
-1.0199003 1.8272429 2.9689374
-1.0199003 1.8272429 3.01875
-1.0199003 1.7774086 0.029999999
-1.0199003 1.7774086 0.079812497
-1.0199003 1.7774086 0.12962499
-1.0199003 1.7774086 0.1794375
-1.0199003 1.7774086 0.22925
-1.0199003 1.7774086 0.27906248
-1.0199003 1.7774086 0.32887501
-1.0199003 1.7774086 0.3786875
-1.0199003 1.7774086 0.4285
-1.0199003 1.7774086 0.47831249
-1.0199003 1.7774086 0.52812499
-1.0199003 1.7774086 0.57793748
-1.0199003 1.7774086 0.62774998
-1.0199003 1.7774086 0.67756248
-1.0199003 1.7774086 0.72737497
-1.0199003 1.7774086 0.77718747
-1.0199003 1.7774086 0.82699996
-1.0199003 1.7774086 0.87681246
-1.0199003 1.7774086 0.92662495
-1.0199003 1.7774086 0.97643745
-1.0199003 1.7774086 1.02625
-1.0199003 1.7774086 1.0760624
-1.0199003 1.7774086 1.125875
-1.0199003 1.7774086 1.1756874
-1.0199003 1.7774086 1.2255
-1.0199003 1.7774086 1.2753124
-1.0199003 1.7774086 1.325125
-1.0199003 1.7774086 1.3749374
-1.0199003 1.7774086 1.42475
-1.0199003 1.7774086 1.4745624
-1.0199003 1.7774086 1.524375
-1.0199003 1.7774086 1.5741874
-1.0199003 1.7774086 1.624
-1.0199003 1.7774086 1.6738125
-1.0199003 1.7774086 1.7236249
-1.0199003 1.7774086 1.7734375
-1.0199003 1.7774086 1.8232499
-1.0199003 1.7774086 1.8730625
-1.0199003 1.7774086 1.9228749
-1.0199003 1.7774086 1.9726875
-1.0199003 1.7774086 2.0225
-1.0199003 1.7774086 2.0723124
-1.0199003 1.7774086 2.1221249
-1.0199003 1.7774086 2.1719375
-1.0199003 1.7774086 2.22175
-1.0199003 1.7774086 2.2715623
-1.0199003 1.7774086 2.3213749
-1.0199003 1.7774086 2.3711874
-1.0199003 1.7774086 2.421
-1.0199003 1.7774086 2.4708126
-1.0199003 1.7774086 2.5206249
-1.0199003 1.7774086 2.5704374
-1.0199003 1.7774086 2.62025
-1.0199003 1.7774086 2.6700625
-1.0199003 1.7774086 2.7198749
-1.0199003 1.7774086 2.7696874
-1.0199003 1.7774086 2.8195
-1.0199003 1.7774086 2.8693125
-1.0199003 1.7774086 2.9191248
-1.0199003 1.7774086 2.9689374
-1.0199003 1.7774086 3.01875
-1.0199003 1.7275753 0.029999999
-1.0199003 1.7275753 0.079812497
-1.0199003 1.7275753 0.12962499
-1.0199003 1.7275753 0.1794375
-1.0199003 1.7275753 0.22925
-1.0199003 1.7275753 0.27906248
-1.0199003 1.7275753 0.32887501
-1.0199003 1.7275753 0.3786875
-1.0199003 1.7275753 0.4285
-1.0199003 1.7275753 0.47831249
-1.0199003 1.7275753 0.52812499
-1.0199003 1.7275753 0.57793748
-1.0199003 1.7275753 0.62774998
-1.0199003 1.7275753 0.67756248
-1.0199003 1.7275753 0.72737497
-1.0199003 1.7275753 0.77718747
-1.0199003 1.7275753 0.82699996
-1.0199003 1.7275753 0.87681246
-1.0199003 1.7275753 0.92662495
-1.0199003 1.7275753 0.97643745
-1.0199003 1.7275753 1.02625
-1.0199003 1.7275753 1.0760624
-1.0199003 1.7275753 1.125875
-1.0199003 1.7275753 1.1756874
-1.0199003 1.7275753 1.2255
-1.0199003 1.7275753 1.2753124
-1.0199003 1.7275753 1.325125
-1.0199003 1.7275753 1.3749374
-1.0199003 1.7275753 1.42475
-1.0199003 1.7275753 1.4745624
-1.0199003 1.7275753 1.524375
-1.0199003 1.7275753 1.5741874
-1.0199003 1.7275753 1.624
-1.0199003 1.7275753 1.6738125
-1.0199003 1.7275753 1.7236249
-1.0199003 1.7275753 1.7734375
-1.0199003 1.7275753 1.8232499
-1.0199003 1.7275753 1.8730625
-1.0199003 1.7275753 1.9228749
-1.0199003 1.7275753 1.9726875
-1.0199003 1.7275753 2.0225
-1.0199003 1.7275753 2.0723124
-1.0199003 1.7275753 2.1221249
-1.0199003 1.7275753 2.1719375
-1.0199003 1.7275753 2.22175
-1.0199003 1.7275753 2.2715623
-1.0199003 1.7275753 2.3213749
-1.0199003 1.7275753 2.3711874
-1.0199003 1.7275753 2.421
-1.0199003 1.7275753 2.4708126
-1.0199003 1.7275753 2.5206249
-1.0199003 1.7275753 2.5704374
-1.0199003 1.7275753 2.62025
-1.0199003 1.7275753 2.6700625
-1.0199003 1.7275753 2.7198749
-1.0199003 1.7275753 2.7696874
-1.0199003 1.7275753 2.8195
-1.0199003 1.7275753 2.8693125
-1.0199003 1.7275753 2.9191248
-1.0199003 1.7275753 2.9689374
-1.0199003 1.7275753 3.01875
-1.0199003 1.6777411 0.029999999
-1.0199003 1.6777411 0.079812497
-1.0199003 1.6777411 0.12962499
-1.0199003 1.6777411 0.1794375
-1.0199003 1.6777411 0.22925
-1.0199003 1.6777411 0.27906248
-1.0199003 1.6777411 0.32887501
-1.0199003 1.6777411 0.3786875
